ncols 51
nrows 51
xllcorner 288313.2
yllcorner 2149848
cellsize 20
NODATA_value -9999
476.25 476.098 475.945 475.717 475.488 474.878 473.964 472.745 471.373 470.23 469.392 468.782 468.097 467.411 466.649 465.506 464.439 463.448 463.22 463.144 462.991 462.839 462.763 462.763 462.839 463.144 463.144 463.144 462.991 462.839 462.61 462.077 461.239 460.4 459.562 458.8 458.267 457.886 457.505 457.352 457.2 457.2 457.2 457.048 456.59 455.752 454.533 453.314 452.323 451.409 451.028
476.555 476.479 476.326 476.174 475.869 475.717 475.107 473.812 472.364 471.068 470.078 469.24 468.554 467.792 467.03 465.887 464.515 463.677 463.601 463.448 463.448 463.22 463.067 463.067 463.296 463.448 463.448 463.448 463.372 463.067 462.763 461.924 460.934 459.791 458.953 458.495 458.114 457.81 457.429 457.124 456.743 456.438 456.286 456.209 455.828 455.143 453.923 452.78 451.714 451.028 450.799
476.936 476.86 476.631 476.479 476.174 476.021 475.717 474.802 473.202 471.678 470.535 469.316 468.63 467.944 467.182 466.115 464.972 464.439 464.363 464.058 463.906 463.525 463.372 463.372 463.677 463.753 463.753 463.753 463.601 463.372 462.763 461.543 460.324 459.105 458.419 458.114 457.657 457.276 456.895 456.59 456.209 455.828 455.447 455.066 454.685 454.076 453.161 452.247 451.256 450.875 450.799
477.241 477.088 476.936 476.707 476.402 476.174 475.869 475.336 473.964 472.059 470.535 469.24 468.63 468.097 467.487 466.649 465.734 465.277 464.82 464.668 464.363 464.058 463.829 463.753 463.906 463.753 463.677 463.601 463.448 462.991 462.153 460.705 459.486 458.572 457.81 457.505 457.124 456.819 456.362 455.981 455.371 455.143 454.914 454.457 453.771 453.466 452.78 452.171 451.485 451.104 450.799
477.622 477.317 477.164 476.936 476.631 476.326 476.021 475.64 474.269 472.592 470.459 469.24 468.706 468.325 467.563 466.954 466.268 465.734 465.201 465.049 464.744 464.363 464.134 463.829 463.677 463.372 463.144 462.839 462.534 461.924 461.162 459.867 458.419 457.657 457.276 456.971 456.59 456.286 455.905 455.371 454.99 454.685 454.152 453.847 453.238 452.78 452.552 452.171 451.714 451.256 450.875
477.698 477.545 477.393 477.088 476.783 476.479 476.174 475.717 475.031 473.507 471.449 469.925 469.087 468.478 467.944 467.258 466.496 466.039 465.506 464.972 464.591 464.21 463.753 463.448 463.22 462.686 462.305 461.848 461.315 460.705 459.791 458.724 457.429 456.971 456.667 456.286 456.057 455.752 455.447 455.066 454.685 454.152 453.695 453.238 452.78 452.552 452.323 452.095 451.561 451.18 450.799
477.926 477.774 477.622 477.317 477.088 476.783 476.326 476.021 475.717 474.802 473.05 471.221 469.925 468.935 468.325 467.411 466.496 465.658 465.201 464.515 463.906 463.448 463.22 462.991 462.686 462.077 461.467 460.858 460.096 459.486 458.8 457.962 457.2 456.743 456.362 455.905 455.6 455.295 455.066 454.838 454.457 454 453.695 453.085 452.704 452.323 452.018 451.79 451.485 451.028 451.028
478.231 478.003 477.85 477.545 477.317 477.012 476.707 476.326 476.021 475.717 474.65 472.516 470.611 469.316 468.325 467.411 466.344 465.277 464.515 463.982 463.448 462.991 462.686 462.382 462.077 461.391 460.477 459.715 458.876 458.267 457.657 457.2 456.895 456.59 456.209 455.905 455.524 455.219 455.143 454.838 454.609 454.076 453.695 453.161 452.704 452.399 452.095 451.714 451.333 451.18 451.333
478.46 478.231 478.079 477.85 477.545 477.241 477.088 476.783 476.402 476.098 475.564 473.583 471.145 469.392 468.249 467.258 466.115 464.972 464.21 463.601 463.067 462.61 462.153 461.924 461.315 460.477 459.41 458.572 457.886 457.276 456.971 456.743 456.438 456.209 455.905 455.676 455.6 455.524 455.371 455.066 454.609 454.076 453.619 453.238 452.78 452.476 452.247 451.866 451.561 451.561 451.79
478.765 478.688 478.307 478.079 477.85 477.545 477.393 477.241 476.86 476.402 475.869 474.193 471.373 469.392 468.173 467.03 465.506 464.515 463.829 463.144 462.686 462.305 461.848 461.467 460.705 459.562 458.572 457.733 457.124 456.895 456.667 456.362 456.133 455.905 455.905 455.676 455.676 455.524 455.371 454.99 454.533 453.847 453.466 453.161 452.857 452.704 452.476 452.095 451.942 451.866 452.095
478.993 478.841 478.765 478.46 478.231 477.926 477.545 477.241 476.936 476.555 475.945 474.421 471.678 469.773 468.249 466.268 464.439 463.525 463.144 462.763 462.382 461.924 461.543 461.086 460.096 458.876 458.038 457.276 456.895 456.743 456.59 456.286 456.286 455.981 455.981 455.981 455.828 455.6 455.371 454.838 454.381 454 453.619 453.466 453.238 452.78 452.78 452.552 452.476 452.323 452.552
479.146 478.917 478.841 478.688 478.307 478.079 477.698 477.164 476.86 476.326 475.488 473.888 471.83 470.306 468.401 465.506 463.601 462.915 462.686 462.382 462.001 461.543 461.162 460.553 459.562 458.572 457.81 457.276 456.971 456.819 456.667 456.514 456.438 456.438 456.438 456.286 455.981 455.828 455.219 454.914 454.533 454.304 454.228 453.771 453.314 453.085 453.161 452.78 452.857 452.704 452.857
479.069 478.993 478.765 478.612 478.155 477.926 477.317 476.555 475.945 475.107 473.735 472.288 470.764 469.468 467.563 464.896 463.144 462.61 462.305 461.924 461.543 461.239 460.781 460.172 459.486 458.572 457.962 457.505 457.2 457.048 457.048 456.971 456.895 456.895 456.667 456.438 456.133 455.752 455.371 455.295 454.914 454.533 454.228 453.771 453.466 453.619 453.466 453.39 453.39 453.085 453.39
478.612 478.536 478.612 478.231 477.926 477.317 476.479 475.64 474.497 473.05 470.916 469.621 468.706 467.716 465.963 463.982 462.991 462.458 461.924 461.696 461.391 461.01 460.705 460.324 459.562 458.876 458.343 457.962 457.581 457.352 457.276 457.2 457.2 457.048 456.819 456.59 456.133 455.905 455.828 455.447 454.99 454.533 454.076 453.923 453.847 454 454 454 454 453.695 453.771
478.612 478.231 478.079 477.85 477.317 476.86 476.021 474.955 473.202 470.992 469.011 467.792 466.801 465.887 464.439 463.296 462.763 462.153 461.924 461.62 461.239 461.162 460.781 460.172 459.715 459.181 458.724 458.419 458.267 457.962 457.886 457.733 457.505 457.2 456.971 456.819 456.438 456.133 455.828 455.295 454.762 454.457 454.381 454.381 454.381 454.304 454.381 454.457 454.609 454.304 454.304
478.688 478.079 477.622 477.241 476.783 476.402 475.64 474.116 472.211 470.078 468.401 466.801 465.353 464.287 463.296 462.839 462.61 462.382 462.229 461.924 461.62 461.391 460.781 460.096 459.791 459.181 458.953 458.724 458.724 458.343 458.191 457.962 457.657 457.352 457.2 456.971 456.59 455.905 455.524 455.143 454.762 454.685 454.762 454.762 454.609 454.609 454.838 455.143 454.99 454.609 454.457
478.688 478.079 477.469 476.783 476.555 475.945 474.726 472.745 470.764 469.24 468.02 466.192 464.134 463.22 462.991 462.839 462.839 462.915 462.991 462.763 462.382 461.696 460.781 460.096 459.486 459.105 458.8 458.724 458.572 458.343 458.038 457.886 457.581 457.276 457.124 456.743 456.133 455.828 455.447 455.143 455.066 454.99 454.914 455.066 454.762 454.838 455.295 455.447 455.295 454.838 454.838
478.688 478.079 477.393 476.555 476.021 475.259 473.126 470.687 469.316 468.63 467.716 465.963 464.058 463.525 463.448 463.448 463.448 463.448 463.525 463.372 462.839 461.924 461.01 460.096 459.334 458.953 458.572 458.343 458.191 457.962 457.657 457.429 457.276 457.2 456.895 456.514 455.905 455.676 455.371 455.143 455.371 455.219 455.371 455.295 455.219 455.371 455.676 455.676 455.524 455.143 455.219
478.841 478.003 477.088 476.098 475.488 473.888 470.383 469.087 468.63 468.173 467.563 466.496 465.277 464.668 464.515 464.515 464.363 464.363 464.058 463.525 462.839 462.001 461.086 459.715 459.029 458.419 458.114 457.962 457.657 457.429 457.276 457.124 456.971 456.819 456.59 456.057 455.752 455.676 455.6 455.828 455.676 455.676 455.828 455.676 455.828 455.676 455.981 455.905 455.752 455.524 455.6
479.45 478.079 476.555 475.488 474.726 472.745 470.306 469.697 469.24 468.935 468.249 467.258 466.496 466.039 465.734 465.353 465.049 464.82 464.439 463.677 463.22 462.305 460.858 459.181 458.191 457.886 457.657 457.429 457.276 457.124 456.971 456.819 456.667 456.438 456.362 455.981 455.676 455.676 455.752 456.133 455.905 456.133 456.209 456.286 456.209 456.057 456.057 456.133 456.057 455.828 455.828
479.984 478.688 476.783 475.564 475.412 474.802 473.812 472.135 470.992 470.154 469.24 468.401 467.944 467.182 466.725 466.268 465.43 464.896 464.363 464.058 463.448 462.382 460.248 458.495 457.81 457.429 457.124 457.048 456.895 456.743 456.667 456.438 456.286 456.133 455.981 455.981 455.828 455.676 455.905 456.362 456.514 456.743 456.743 456.743 456.514 456.438 456.362 456.133 455.981 455.981 456.057
480.441 479.603 478.079 477.241 477.088 477.012 476.098 474.574 472.897 471.526 470.383 469.697 469.087 468.401 467.639 466.649 465.353 464.591 464.134 463.601 462.763 461.543 459.41 457.962 457.2 456.971 456.819 456.743 456.59 456.59 456.286 456.286 456.133 456.133 456.057 455.981 456.133 455.981 456.286 456.667 457.124 457.2 457.124 456.971 456.743 456.59 456.59 456.514 456.209 456.133 456.362
480.898 480.441 479.984 479.527 479.146 478.612 477.241 475.869 474.421 472.973 471.907 471.068 470.23 469.468 468.554 466.725 464.82 463.906 463.296 462.61 461.772 460.248 458.419 457.276 456.895 456.819 456.667 456.59 456.59 456.514 456.286 456.286 456.209 456.286 456.286 456.286 456.286 456.133 456.438 457.048 457.733 458.038 457.657 457.124 456.895 456.895 456.895 456.667 456.514 456.438 456.819
481.432 481.279 481.279 481.355 481.127 479.908 478.155 476.707 475.488 474.269 473.126 472.059 470.916 470.23 469.087 465.811 463.906 463.296 462.686 461.848 461.01 459.638 458.038 457.581 457.352 457.124 457.048 456.895 456.59 456.362 456.286 456.286 456.438 456.438 456.362 456.286 456.209 456.133 456.743 457.81 458.572 458.953 457.962 457.505 457.276 457.124 457.048 456.971 456.743 456.743 457.733
482.041 481.813 481.889 482.194 481.736 480.898 479.069 477.317 476.25 475.412 474.193 472.364 470.916 469.697 467.487 464.058 462.839 462.534 462.153 461.696 461.086 459.867 458.953 458.343 458.191 457.81 457.276 456.819 456.514 456.286 456.286 456.362 456.59 456.59 456.362 456.133 456.209 456.743 457.733 459.257 460.477 460.858 460.477 459.867 459.334 458.724 458.267 457.81 457.505 458.191 461.086
482.575 482.27 482.194 482.117 481.66 480.746 479.45 478.079 477.012 476.098 475.031 471.602 469.468 467.335 463.906 462.61 462.382 462.229 462.305 462.077 461.543 460.781 459.638 459.029 458.572 457.886 457.124 456.743 456.667 456.743 456.743 456.971 456.971 456.59 456.514 456.819 457.352 458.267 459.791 461.62 462.839 463.296 463.296 463.144 463.067 462.686 461.543 460.248 459.867 460.705 463.144
482.803 482.498 482.194 482.041 481.127 480.212 479.298 478.231 477.241 476.326 474.574 469.468 467.03 464.287 462.458 462.382 462.458 462.763 463.067 462.839 462.534 461.62 460.553 459.562 458.8 457.81 457.2 457.048 457.276 457.429 457.581 457.81 457.581 457.276 457.352 457.962 458.8 460.248 462.077 464.134 465.811 466.496 466.954 467.258 467.335 466.954 465.125 462.991 462.686 462.915 464.515
482.651 482.346 482.041 481.66 480.517 479.603 478.46 477.622 476.783 475.869 472.288 468.02 465.43 463.22 462.763 462.839 462.915 463.372 463.829 463.753 463.296 462.229 460.934 460.248 459.41 458.572 458.343 458.191 458.419 458.419 458.724 458.724 458.572 458.495 458.876 459.638 460.705 462.153 464.591 467.487 469.163 469.925 470.611 471.221 471.526 471.221 469.392 467.335 466.954 466.801 467.182
482.346 482.117 481.965 481.127 479.45 478.307 477.164 476.402 475.564 474.116 470.764 468.249 466.192 464.896 464.439 463.829 463.601 464.134 464.668 464.439 463.601 462.305 461.543 461.086 460.705 460.172 460.096 459.715 459.638 459.715 459.867 459.943 460.019 460.248 460.629 461.239 462.305 464.668 468.554 470.611 471.602 472.592 473.583 474.65 475.183 474.726 472.669 471.373 470.992 470.306 469.773
482.194 482.117 481.355 479.146 477.088 476.25 475.564 475.031 473.888 471.83 469.849 468.63 468.63 468.782 468.478 467.106 465.811 465.506 465.353 464.515 463.296 462.686 462.229 462.229 461.924 461.772 461.543 461.467 461.315 461.315 461.162 461.162 461.391 461.848 462.382 462.839 464.287 468.63 471.221 472.592 473.659 474.726 475.717 476.25 476.326 475.793 475.107 474.269 473.354 472.592 472.288
481.279 480.67 478.155 475.488 474.726 474.574 474.421 474.193 473.126 471.754 470.383 470.078 470.459 470.687 470.459 469.468 467.944 466.954 466.192 465.201 464.058 463.601 463.601 463.448 463.372 463.144 463.067 462.991 462.839 462.763 462.686 462.458 462.763 463.372 464.21 465.43 467.944 471.068 472.973 474.421 475.336 476.098 476.555 476.555 476.402 476.021 475.869 475.793 475.259 474.574 474.193
478.841 477.545 475.412 474.04 473.964 474.116 474.116 474.116 473.659 472.897 472.44 472.364 472.364 472.211 471.526 470.078 468.63 467.563 467.182 466.801 466.192 465.506 465.353 465.43 465.43 465.582 465.734 465.734 465.43 465.125 464.591 464.363 464.591 465.734 467.106 468.706 470.687 472.973 474.726 475.869 476.326 476.631 476.707 476.707 476.479 476.326 476.25 476.25 475.945 475.793 475.488
476.707 475.412 474.726 474.345 474.116 474.345 474.497 474.726 474.878 474.878 474.802 474.726 474.421 473.964 473.05 471.145 469.316 468.554 468.478 468.325 468.249 467.792 467.411 467.639 468.02 468.782 469.24 469.392 469.316 468.554 467.868 467.411 467.868 468.63 470.002 471.526 473.659 475.259 476.021 476.402 476.479 476.707 476.707 476.707 476.555 476.402 476.402 476.25 476.098 476.098 475.64
476.174 475.412 475.183 475.183 475.183 475.488 475.64 476.021 476.326 476.402 476.402 476.326 476.098 475.793 474.955 473.278 471.145 470.154 470.002 470.154 470.154 469.925 469.468 469.849 470.459 471.068 471.449 471.678 471.449 470.916 470.535 470.459 470.687 471.602 472.897 474.497 475.793 476.098 476.174 476.402 476.402 476.402 476.402 476.402 476.25 476.021 475.945 475.945 475.793 475.64 475.259
476.783 476.707 476.631 476.86 476.86 477.088 477.317 477.622 477.926 478.003 477.85 477.698 477.469 477.164 476.555 475.488 473.888 472.745 472.288 472.288 472.288 472.135 472.211 472.669 473.354 473.888 473.659 473.354 473.126 472.973 473.05 473.431 473.812 474.497 475.336 476.021 476.326 476.326 476.402 476.479 476.555 476.326 476.174 475.869 475.793 475.64 475.64 475.488 475.412 475.183 474.65
478.384 478.384 478.46 478.765 478.917 479.069 479.374 479.755 479.908 479.908 479.603 479.222 478.688 478.231 477.698 476.86 475.869 474.878 474.65 474.574 474.574 474.574 474.65 475.412 476.25 476.479 475.64 474.955 474.726 474.878 475.183 475.64 475.869 475.945 476.174 476.326 476.479 476.479 476.479 476.479 476.098 475.945 475.869 475.717 475.488 475.488 475.336 475.259 475.031 474.878 474.116
480.212 480.212 480.365 480.822 481.127 481.127 481.279 481.66 481.736 481.432 481.127 480.593 479.908 479.298 478.993 478.307 477.622 477.088 477.012 477.012 477.088 477.317 477.545 478.307 479.146 479.298 478.384 477.393 476.707 476.555 476.631 476.555 476.402 476.479 476.555 476.631 476.707 476.631 476.326 476.021 475.793 475.717 475.564 475.488 475.412 475.183 474.955 474.726 474.574 474.116 473.507
481.736 481.736 481.736 482.041 482.041 482.041 482.041 482.27 482.194 482.041 481.965 481.584 481.051 480.441 480.06 479.908 479.603 479.527 479.45 479.603 479.831 480.136 480.67 481.355 481.965 481.813 481.355 480.365 479.146 478.46 478.003 477.545 477.545 477.317 477.088 476.86 476.783 476.631 476.25 475.869 475.717 475.488 475.412 475.259 475.183 474.955 474.726 474.421 473.964 473.583 473.278
482.346 482.346 482.422 482.346 482.346 482.422 482.651 482.651 482.575 482.346 482.27 481.965 481.736 481.432 481.355 481.279 481.279 481.279 481.432 481.66 481.965 482.117 482.194 482.27 482.194 482.041 481.889 481.432 480.517 479.831 478.917 478.46 478.003 477.698 477.317 476.936 476.402 476.098 475.869 475.64 475.488 475.259 475.107 475.031 474.878 474.65 474.345 474.269 473.812 473.431 473.126
482.956 482.956 482.956 482.956 482.956 482.956 483.184 483.032 482.879 482.727 482.575 482.27 482.117 482.041 482.041 482.041 482.041 482.041 482.041 482.194 482.346 482.422 482.498 482.346 482.194 482.041 481.889 481.432 480.822 480.289 479.603 478.917 478.384 477.85 477.317 476.707 476.098 475.717 475.488 475.488 475.259 475.183 474.878 474.726 474.497 474.345 474.193 473.964 473.659 473.202 472.973
483.565 483.565 483.413 483.413 483.337 483.337 483.565 483.413 483.26 483.032 482.879 482.651 482.498 482.422 482.346 482.346 482.575 482.651 482.651 482.651 482.575 482.498 482.498 482.27 482.194 481.889 481.736 481.432 480.822 480.365 479.603 479.222 478.384 477.698 477.012 476.555 475.945 475.488 475.259 475.183 475.031 474.878 474.802 474.574 474.421 474.193 473.888 473.659 473.507 473.278 472.897
484.175 484.022 483.87 483.794 483.718 483.565 483.87 483.718 483.565 483.337 483.108 482.956 482.803 482.803 482.727 482.879 482.956 482.956 482.956 482.803 482.803 482.498 482.422 482.194 482.041 481.889 481.584 481.203 480.822 480.212 479.755 479.146 478.688 477.774 476.86 476.25 475.793 475.488 475.183 474.955 474.878 474.802 474.65 474.574 474.269 474.04 473.735 473.583 473.354 473.126 472.973
484.861 484.632 484.48 484.251 484.175 484.022 484.175 484.022 483.794 483.565 483.337 483.26 483.108 483.108 483.108 483.26 483.26 483.184 483.108 482.956 482.727 482.422 482.194 482.117 481.889 481.66 481.508 481.051 480.517 480.212 479.679 479.298 478.384 477.469 476.86 476.25 475.869 475.488 475.336 475.107 474.955 474.878 474.574 474.574 474.269 473.964 473.888 473.735 473.354 472.973 472.821
485.546 485.394 485.013 484.784 484.556 484.403 484.403 484.175 483.946 483.718 483.565 483.565 483.413 483.413 483.489 483.489 483.413 483.184 483.108 482.727 482.498 482.27 482.117 481.889 481.66 481.508 481.203 480.822 480.441 480.136 479.603 478.993 478.384 477.698 476.936 476.402 476.021 475.717 475.64 475.488 475.183 474.955 474.802 474.574 474.345 474.116 473.964 473.888 473.507 473.126 472.669
486.156 485.851 485.394 485.165 484.937 484.632 484.632 484.403 484.175 484.022 483.87 483.87 483.718 483.718 483.718 483.641 483.337 483.108 482.803 482.498 482.27 482.117 481.889 481.66 481.508 481.279 480.974 480.593 480.212 479.908 479.374 478.993 478.384 477.545 476.936 476.631 476.25 476.021 475.869 475.564 475.412 475.259 475.107 474.802 474.574 474.269 473.964 473.659 473.354 473.05 472.745
486.537 486.08 485.699 485.394 485.013 484.784 484.861 484.708 484.403 484.251 484.175 484.022 484.022 483.87 483.718 483.489 483.26 482.879 482.498 482.27 482.117 481.889 481.66 481.508 481.355 481.051 480.746 480.441 480.06 479.679 479.298 478.841 478.155 477.698 477.241 476.783 476.402 476.326 476.098 475.869 475.717 475.64 475.412 475.031 474.65 474.269 473.812 473.431 473.126 472.745 472.44
486.766 486.232 485.851 485.546 485.242 485.013 485.013 484.937 484.708 484.48 484.327 484.251 484.022 483.87 483.565 483.413 483.032 482.651 482.346 482.117 481.889 481.66 481.508 481.279 481.051 480.822 480.593 480.212 479.831 479.527 479.298 478.688 478.079 477.774 477.469 477.012 476.707 476.555 476.326 476.25 476.098 475.793 475.488 475.183 474.726 474.193 473.812 473.278 472.897 472.592 472.288
486.842 486.385 486.004 485.699 485.394 485.013 485.089 484.784 484.708 484.632 484.403 484.251 483.946 483.565 483.337 483.032 482.727 482.422 482.194 481.813 481.66 481.508 481.203 480.974 480.898 480.593 480.289 479.984 479.679 479.45 478.993 478.612 478.155 477.926 477.469 477.164 476.936 476.707 476.479 476.402 476.098 475.793 475.488 475.183 474.726 474.421 473.888 473.507 473.126 472.897 472.516
486.689 486.308 486.004 485.47 485.165 484.861 484.403 484.403 484.327 484.251 484.022 483.794 483.413 483.032 482.803 482.575 482.422 482.117 481.965 481.66 481.508 481.203 480.974 480.746 480.517 480.365 480.06 479.831 479.527 479.222 478.917 478.536 478.231 477.774 477.469 477.164 477.012 476.707 476.479 476.174 475.869 475.564 475.412 475.031 474.726 474.421 474.04 473.659 473.278 472.897 472.516
486.613 486.308 485.851 485.546 485.089 484.556 484.099 483.794 483.565 483.565 483.565 483.184 482.575 482.27 482.041 482.041 482.041 481.889 481.66 481.508 481.279 480.974 480.746 480.441 480.289 480.136 479.908 479.679 479.45 479.146 478.841 478.536 478.384 477.774 477.393 477.088 476.783 476.479 476.174 475.869 475.564 475.412 475.183 474.955 474.726 474.345 473.964 473.659 473.278 472.897 472.44
486.537 486.232 485.775 485.47 485.165 484.556 484.099 483.337 483.032 482.803 482.498 482.346 481.889 481.584 481.584 481.584 481.584 481.584 481.508 481.279 481.051 480.746 480.593 480.289 480.06 479.984 479.831 479.527 479.298 478.993 478.841 478.536 478.079 477.698 477.241 476.936 476.479 476.174 475.869 475.564 475.412 475.183 475.031 474.878 474.574 474.269 473.964 473.507 473.202 472.897 472.592
